# 3D point list with one line of data per point:
#   POINT3D_ID, X, Y, Z, R, G, B, ERROR, TRACK[] as (IMAGE_ID, POINT2D_IDX)
# Number of points: 411, mean track length: 3.7165261922543475
3181 6.5131993563285926 -0.94150940118341964 1.3073419195962845 134 150 140 2.0249184613303917 45 770 60 995 40 728
3183 6.5748907466589923 -0.24365774067072932 1.1693959851707407 117 139 124 1.3423208053118176 60 947 40 738
4579 2.5981946055496827 -1.4315726324105875 0.54151831961151387 150 151 117 1.4416704954960593 58 2071 37 427 42 153
3184 4.1221598861105688 -0.28025066343773142 -0.78151729447169205 161 165 212 1.3391082004828878 45 812 52 674 40 742 38 508
4064 5.735832244302375 -0.56783577279167641 0.95770881955226095 71 76 56 2.3533089946842685 59 872 53 678
3185 7.3075765833603112 0.16025544813611006 1.4762155706467264 145 150 145 0.91262981522373376 49 891 40 747 47 443
3193 3.9166935835741548 1.143991049009903 -0.55924333243096114 27 28 14 0.66939577033567765 51 666 40 797
4597 5.8867456885394995 -0.56882571719270036 0.14463390513576804 198 197 195 1.1764752332231643 37 44 42 30
3194 4.4094668238595851 1.2139322596891755 -0.82463577928746468 156 145 202 0.11692556667280321 52 673 40 803
3197 6.6184561448826678 1.3358562440577457 1.0990720261487259 175 183 168 1.3246953652781517 45 1116 40 834 38 824
3857 4.1596593204614569 -0.95208517006405169 -0.54859752028504727 68 61 69 1.705907607867043 52 479 35 289 40 301
3200 4.9394234919907127 -1.3630280704879085 6.0176741785859349 191 172 113 1.1540319817190394 45 636 52 751 40 865
3861 3.7740269451953359 0.67033748018400496 -1.1452100936880916 126 111 88 0.6729330140246137 49 478 38 540
3204 5.5658711981332161 -2.0797221561369792 0.97477800601981157 199 192 174 1.2715798962210427 45 1043 52 1361 40 897 49 1185
3205 4.0832586919468712 0.0050426096303878322 -0.90001780962431976 205 214 241 1.0662069712060522 60 1394 40 898
3865 4.7352732371144679 0.7348063455026782 1.4217914877685043 0 0 0 0.55667067584621466 45 1088 52 1866
3208 4.36068544326137 -1.0228448529181902 -0.36218135101474397 103 97 101 1.6474248305170416 45 911 40 941 38 592
3212 4.7143937580914423 0.61785799720860846 -0.41241216442133649 94 98 152 0.078792599341808614 40 975 35 404
4895 6.0996476758463034 -1.63789824717099 1.1095555943052096 129 135 133 1.880640851456242 42 932 46 992 33 517
3214 4.5145884937704173 1.003496808567041 -0.65363709552248905 106 92 151 1.3433496811592323 52 1486 46 1254 60 1535
3937 3.0904711971666403 -1.5231618391466324 -0.33322856196238604 119 107 76 1.43579356966238 59 473 53 473 62 278
3216 4.3921962434627879 1.2354433252713244 -0.80520253761797589 81 66 146 0.35530978744449249 40 1003 35 741
3219 5.0862786820794836 -1.3959453853439683 8.0055850528270849 192 182 123 1.6345909399700225 45 1046 52 1207 40 1033 47 946
3941 5.7856733914488609 -0.34976907442170063 1.1119073858279749 127 113 86 1.2991598024458435 59 884 89 613 53 518
3220 4.4685395456360277 -1.0411595835034093 -0.27228666670576296 159 152 152 0.94037191349628735 45 1188 60 2048 40 1051
4378 2.5057135492362077 0.20586280447148492 1.1221300082850882 211 204 162 0.6416741890182639 58 2129 62 1098
3221 3.9732269262869293 -1.2313510078383534 -0.76799868166600438 130 125 131 0.0033942755890166675 59 2521 40 1063
3224 4.3751830335749666 0.25678765147509647 -0.6888681251371821 106 73 119 2.8773377044459516 45 997 40 1136 38 916
3228 4.1060930475912834 -0.38578549396572592 -0.80826697363491573 156 163 190 0.4758724708679673 60 1928 40 1173
3230 4.1406817559645903 -0.42125019088820087 -0.76100527403149032 179 184 220 0.80382012530340663 52 1429 59 2688 40 1176
3232 4.1734334869388716 -0.97782268581199838 -0.57148098600766506 154 149 153 1.6105755219649918 59 2478 60 2344 40 1188
4052 2.678325668965543 -0.80501046219305294 0.64540643398806175 179 174 142 3.0273271814244374 59 83 53 41
3237 5.8604296084708549 -0.042956282152993928 0.83061507172793136 83 100 84 1.891815017649169 51 1960 46 1577 37 1030 34 1009 32 1311
4056 4.6934249218712507 0.15553083578022864 -0.28713816359287886 136 101 156 3.0339389882926451 58 108 53 237
3241 4.7827958332522256 1.411608296901399 -0.41898930784069133 154 144 196 0.4023711963519303 52 2004 40 1475
3841 4.2162754391494337 0.25144157677900247 -0.79157478285623639 90 76 107 1.8318679322983913 49 959 51 848 38 826 58 880
3248 3.9070522320266248 -1.6375502730613896 0.050344207141191054 87 72 55 1.5937102114643362 40 327 49 212 58 195 52 219 45 242 43 236 47 195 38 315 62 473
12544 -0.17170068024094357 1.5307282993077111 4.346917949563605 179 170 155 0.49662361458115589 8 3 55 116
3251 4.015089900579512 -0.29503624667614592 -0.9156978213071314 49 52 93 2.002401682607668 89 1478 58 1313 40 629 49 1104 53 857
3845 4.4240144370744456 0.38222235042849689 -0.58952971074231597 63 52 85 1.9223036898512789 60 89 51 139 52 64 43 89 40 108 46 240 45 70 49 132 38 142 35 132
3252 5.4463652289183146 1.5132980381199328 1.1274501990990453 166 147 90 0.72678762324562973 49 1144 58 1826 45 835 40 977 51 1465 52 1139
4410 5.7103350279589478 -0.35737642023077426 0.86908555617942385 65 73 58 2.270176233825334 53 255 62 213 41 197
3253 5.0473723625966302 1.4695289873597566 -0.18894065473654456 199 183 172 1.1480618322601421 49 1224 58 1456 59 2050 51 1427 52 1330 43 940 89 618 60 1031 46 1442 38 857
3254 4.471544975125143 -0.038807790317023132 -0.43594953827515115 96 93 117 2.665432403010505 45 984 60 1420 49 1111 59 1699 51 1238
3849 4.1106997904831903 -0.31414708471582525 -0.79373337648756104 120 125 161 2.2127959412687397 49 1599 45 1342 58 2156 60 1933 38 892 49 1529 52 1852 45 1391 43 1076 59 2671
3256 4.0643589501082102 0.099718470193410874 -0.95477924664200886 137 143 196 1.4515473676579809 49 954 59 1042 40 663 51 869 43 690 46 799
3853 5.9409279561880686 -1.2555417727007756 5.9310706184080857 171 137 66 0.67732840380251147 45 90 58 54
3260 6.4988101484316738 -3.0618421116520387 2.8409320326255068 149 150 136 1.2635521716446316 51 112 47 32
4432 3.4045572219671456 -1.4606649191236154 -0.26530935483160833 186 182 170 1.7550143676267087 46 117 37 66
3267 6.7145905052773864 -1.0454476245173903 1.5758875019807985 138 156 144 2.4160301704463021 58 611 40 570
3925 4.1144232430994272 0.38050816586574204 -0.95662108436827187 125 120 178 0.52643060316429724 53 409 42 685
3268 4.640765336104355 -2.1697098611307104 0.29100809048281234 228 229 213 0.26750930248730925 49 508 40 596
3269 6.8193630399127096 0.012546447943093657 1.3914219999391626 119 142 126 0.32471918175045245 52 604 40 632
4442 4.0427409757747412 1.3986546311353292 -1.1919164648193863 86 85 64 1.8734828828176255 51 362 37 163 42 387
3285 4.622234884693265 0.54370309173998976 -0.46813811584108406 49 45 72 0.56283111014719833 40 41 43 55 47 56
5675 2.1357687545126165 0.62015927979741914 2.0787488437681509 140 130 105 1.4829779259602631 31 772 36 1321
3294 4.8243368859515945 0.25057020811829406 1.218007469082758 166 151 120 1.714054368057977 43 139 47 113
3296 4.4503977199956797 -1.1120102958140496 -0.21097746700278183 106 102 99 0.56446059268287674 51 117 47 122
4464 4.174397820624117 -0.017299235913305813 -0.8275853932599585 151 129 191 1.2255507271957362 89 373 37 318
3299 4.406818292745708 -2.9287447966206077 0.51405414116507153 198 206 185 2.1909685637786649 43 178 51 105 47 131
3957 4.7024795364917731 0.88954148217600348 -0.46865317793755346 101 90 132 2.2488249735336416 89 425 53 641 33 419
3300 4.2530323655164777 -0.12507294640767785 -0.71295041872748466 192 198 230 1.4969646564672723 49 159 51 131 40 116 47 136 33 177
3301 5.4885299811092745 -3.4383728841084302 0.65289199719223667 137 128 97 0.60046169164586849 43 214 52 207 47 141
3961 5.7444511232754696 -0.70932997269871123 1.2769462864358647 109 100 85 1.3874957900422289 60 629 37 673
3304 8.3779006633177797 1.3365994859675041 2.1566447536672011 188 187 167 1.4113434011339505 43 158 52 253 47 165
3308 5.5636212996330858 -1.8803897214565044 1.4998639612703131 0 0 0 0.71867003996758538 40 67 43 417
3905 4.1324341572119536 -1.105032144536485 -0.62883828754732152 102 90 92 1.0689422319425941 89 209 53 224 62 253
3312 6.1573403729619276 -2.4260994475427093 1.2976238056783371 140 137 128 1.1073310376540102 43 231 47 218 38 320
12608 0.26121809816685865 2.6219695823133744 5.8523094027170055 96 99 92 1.3178321637369599 77 442 69 402 86 1113
3315 5.7890990799577038 -0.20591185273889745 0.92596690082550115 74 82 67 1.2209756684602404 43 255 89 94 47 233 40 241 51 164
3909 3.6382498699950894 -0.27672582062542184 -0.14520940672269045 230 214 165 0.47204066259331645 89 1157 33 402
3316 6.8435571953019858 -0.81939087086960283 1.610323255565757 125 143 127 3.5317188754616726 51 1917 47 234
3913 4.1174606710773309 -1.807041788868369 4.7290724944454672 176 167 160 1.192780628601086 89 254 53 301 62 281
3320 4.4997923359402323 1.7131220186167986 -0.79934180270353616 122 119 112 2.2203037334854421 40 252 46 424 35 401 47 243
3917 4.1036713670950959 0.093779048673466273 -0.90776471502397393 157 169 209 1.0703915459544515 59 1132 89 231 53 341 62 332 37 320 42 327
3324 6.1524225617875539 0.12844315895558017 2.9272345614807476 166 152 107 1.2750283156290885 43 888 52 916 47 283 45 439
3328 5.6661089813104084 0.43012842420934988 4.9166438151516862 177 156 104 0.75672280976637396 40 242 45 434 52 501 47 307
3760 3.4724358772277566 -1.2153664760861056 -0.5912239141420873 129 122 103 0.61767673918700639 58 340 38 199
3329 4.4467995657852502 -0.58594930057640249 0.3036786368371468 0 0 0 3.4943880425776044 40 348 43 311
3331 4.7565874356715128 -1.6679052936842276 6.9410756559254825 105 76 34 0.77652733731742152 47 331 45 388
3764 6.5911929436769503 -1.561711903352792 1.3280140596153269 124 136 122 1.1679510862926346 43 243 38 223
3333 4.4971618732672693 -1.2909409815575859 -0.22107271958853963 166 151 158 1.7213513621563721 40 314 52 376 47 341
3768 3.7762554559253143 -0.34319724376306748 -0.76807624926325979 70 62 77 1.0413206206459571 49 91 38 265
3337 3.839833960459675 -2.0677600041486577 0.070557073604053194 140 134 97 1.5121256305207074 40 337 47 363 46 307 53 321 35 196 62 451 33 195 41 130
12421 0.38772544292460587 0.45508977241406923 5.479056016611171 181 161 134 3.289672701157996 83 290 39 142
3338 5.2586334050049235 -3.1943686086413234 0.94570882359086317 111 104 84 1.0976554319447716 58 508 59 438 89 460 38 328
3772 4.0944372400862497 0.50510880867730967 -1.0100395442403109 48 44 71 1.2214711828335536 40 391 52 291 38 299
3341 7.5808371998246855 1.0551768996303921 1.3886257105003323 141 135 109 0.77498577629166487 51 387 47 373
3344 4.0842992901417174 0.43656956082421228 -0.97197758554497715 71 62 109 1.3796707153652887 40 386 46 349 38 167 35 340 37 380 33 352
3347 4.5405219013446061 1.2931086665815053 -0.68991613246795414 186 176 226 1.1691641081076631 40 419 43 557 46 596 51 653
3716 4.3853701893099961 0.92485627500542933 -0.75175524345413336 179 171 226 0.37762542327520598 49 1405 46 1738
3350 4.7527913160598176 -0.41607861124020512 4.5981554201573021 168 149 81 0.52592585189976948 45 769 47 424
3720 4.0232041667354288 -0.093572588204297397 -0.97016832632273109 160 163 212 1.940906028725806 49 20 60 13 38 11
3353 4.1538041616719266 -0.30804990142813676 -0.75956738051400485 104 104 163 1.8872068860185891 40 623 45 809 47 438 53 853 35 459
4245 6.0402422878978594 1.2809783814414055 0.81762414028885588 117 136 116 0.40104041205648178 35 486 37 702
3354 6.857804770941522 0.27744513844783486 1.4886349397112344 76 99 81 1.9838926207360288 49 752 47 447 46 1062 37 740
3355 4.5538998293100317 0.8744096846909527 -0.56109724718893506 0 0 0 3.3468180283444608 40 393 51 675
3357 4.2307690250543049 1.3632887536658549 -0.67147849335426169 84 72 148 2.4396223024019967 43 560 47 479
3359 3.9984820236356109 -2.8014946453137219 7.4138969729608395e-05 190 191 175 1.3261819874981602 52 612 47 488
3664 4.8644928710400492 0.95457267435569459 -0.27684939560527355 93 82 148 2.1367523529626951 43 1454 46 1728 38 1128
3361 5.3902541636337267 -2.3206912108485991 0.94065156616865087 151 143 120 1.306921727726289 40 858 51 1668 38 429
3375 4.3598691736528679 0.88973167451024138 -0.80893994878202236 84 69 154 0.54383256599746965 43 450 46 1433
4259 2.8991413842100462 2.6730118114880068 2.3543508735560756 145 105 50 1.2190828895344881 53 51 62 19
3376 3.917694246460488 -1.581687945236643 -0.18568529239295026 177 171 159 1.1310197944424234 43 411 52 378 47 591
3744 4.8395717760245471 0.32676442404234807 0.87323030563382953 50 40 79 0.99185801259721185 40 157 38 154
3377 6.2103846735955424 -2.2842574832138971 1.3376009817487491 175 168 150 1.3917893030324855 45 620 47 592 46 948
4277 3.8470639564260094 0.13636429406732406 -0.72346730834955819 43 25 15 0.19395741819225129 58 31 62 82
3386 4.1079300332290032 -0.18700929590521226 -0.82338581501520069 148 154 204 2.0827572246636503 52 944 58 1561 47 679
12531 1.053993027708755 1.0608511790383044 4.0326367297022578 162 163 158 2.637701784861862 16 36 55 27
3392 4.5717151860166982 1.0267289632988601 -0.90156197448023756 70 58 132 0.78923123650295923 43 859 47 731
3824 3.87343679730933 -0.96289561384536571 -0.89830167256150972 175 168 176 0.58915604592450166 38 802 37 1123 42 1349
3393 4.6675298893077874 1.3306947576061772 -0.95497994521024032 187 184 177 2.5302259688852144 43 731 47 734
3828 4.6396113904977909 1.2157787167164396 -0.2465937060670105 156 143 199 0.39318409966058648 45 1012 38 842
3397 4.2708926324571284 -1.1291724443297002 -0.41436970108486654 104 99 103 2.3663571101684462 51 1689 47 758 35 695
3400 6.0026584667164933 -0.060454643273422051 2.3015702963288991 167 155 117 2.7967276486702031 43 887 52 911 47 781
3401 4.1640546493270083 -0.3398601551732558 -0.7621446779160187 110 109 167 0.25982266880026023 58 1575 47 786
3402 4.0208028262750259 -0.27253247144118342 -0.90705269720838044 147 150 205 0.90956268663836537 51 919 60 1289 47 788
3836 4.615863212848172 0.3192837651170144 0.016302478921849023 147 125 171 0.4732891598893203 45 1350 38 1035
3405 6.6443844357440014 0.77640593528298973 0.71096136094590223 0 0 0 0.22971917212403525 43 359 45 834
3617 4.3327654735898591 0.23683047672096921 -0.68027610837279706 124 91 137 2.1767231604356736 43 692 46 1292 35 575 52 982
3408 4.8769499726434171 1.3801282364132195 -0.36208972388657651 75 62 133 2.1012921586983921 43 1024 60 1340 47 832 46 1446 35 505
3780 4.1096501308706763 -1.2892950410740529 -0.62298030086482792 87 83 83 2.0915182038017504 89 606 38 335 53 582
3413 4.9509418101933784 1.4399022576223335 -0.14439915206290455 0 0 0 2.5272978021292234 58 1468 59 2040
3736 5.4725660920641097 -2.7379124192867379 1.1363995834366509 138 134 123 0.016988225048026086 52 36 62 584
3433 4.2961175636858124 -1.7129730881245042 0.27973721858966544 71 72 58 1.4720117880543395 49 514 89 580 58 525 60 494 59 471 51 508 47 355 53 561 62 585
3434 4.0582781894751383 -3.3325841645795737 0.75006474501809761 229 233 216 3.1007041493241441 40 39 47 44
3740 3.9490328390600911 -0.76055523684613757 -0.86800658955500654 79 69 93 2.4179342419817851 89 65 38 125 53 121 35 253 62 85
3437 4.5594961319954947 0.49292625641368543 -1.5800448860612837 85 72 157 0.62669558126409752 43 553 47 175
3439 3.9149793752566513 -1.6287521068284627 -0.20161996447453159 187 183 171 0.46518541522988999 47 194 35 266
4323 4.660486213522784 -0.51000537609905117 -0.079615099363629996 150 136 187 0.66249109810107965 53 948 62 354
3440 6.358694457257803 -3.511165578635258 1.6274335496627537 136 127 100 0.68774376178402219 60 265 47 209
3441 3.3501764289084623 -3.3863933493015366 1.8612709831672001 159 153 117 3.5803449853552629 51 350 47 367
3812 4.6756302650779391 0.13713439119220511 -0.42563114032296112 0 0 0 0.69984481869435533 49 1534 60 1230
3445 8.5413289459027713 -2.927936343253887 5.0875051000640612 189 186 177 1.0900692289093268 45 756 47 507
3816 4.5748058244949057 1.0479673526817215 -0.5657987284153293 160 148 184 1.4154021103095344 45 1018 58 1466 38 651
4341 1.5318176491108904 -3.023926300162378 2.817479826208495 118 109 80 1.5292491042550267 58 1152 62 504 41 234
3450 4.4467794058468835 2.4183466010611072 0.12978894284082959 83 73 128 1.7025330776576526 40 1466 47 1079
3820 4.5037430866159767 -0.75863283499260847 -0.62444952409476329 98 76 141 0.86832653193272291 45 1065 38 712
3453 7.1280777167549676 -1.8687954329556196 1.8020057939988627 189 187 188 0.072331327734733442 51 15 46 17
3601 4.2490792691355956 1.0711384573965352 -0.9381766494289292 234 230 255 0.93278308863529968 51 1021 52 1031 46 1126
3456 7.1474300017848647 -4.1753409548166536 3.3697820980435389 147 143 135 0.24985376680221946 43 183 46 35
4112 3.5071245870669538 -2.2433949154563577 -0.043323019274863428 205 207 186 0.44177579368626041 46 189 35 158
3459 4.0305747873012239 -0.4643092242357012 -0.76634739304252752 0 0 0 0.67411711425613818 58 70 59 67
3605 4.3242114823597051 1.4279055076550891 -0.95302629815423645 221 212 252 0.75768499356125552 51 768 46 1147 37 854 42 1673
3460 4.3779485726817047 -0.40657289871034902 -0.46767650242191383 125 114 148 1.2780422269191392 51 38 46 48 35 44 37 92 33 72
12298 -0.19320076949221418 4.3170883674930485 7.2355173879115862 148 146 131 1.3435159625960105 86 13 39 13
3461 3.9134705531291294 0.16464423470638181 -1.1915700730471916 41 27 26 2.9120558025748604 89 147 46 53
3609 4.5420875889979895 1.5834482405858912 -0.73359938781750145 72 62 113 1.6201897052836371 43 1050 46 1198
3464 6.0297836104530402 0.050894641113553171 3.2537485063226472 170 153 123 0.82632103952900937 89 64 46 73
3466 6.5914542023767249 0.24420700500740178 2.8245534620499546 136 130 98 2.334434959367365 59 306 89 67 46 93 35 514
3613 4.2424472861565841 1.1135312718040962 -0.96010320097711332 109 103 131 1.1219976670222296 43 1042 46 1228 35 887
3468 7.4749714394235767 -2.1081271475300594 2.6006566126290767 219 218 213 0.54311063726371578 47 7 46 110
4639 3.1777806541921869 1.2611408744873023 -0.27996359268301074 99 92 74 0.86448879015909741 33 359 32 377
3470 3.4105749620275922 1.0667689254434989 -0.26173551692555913 147 145 120 0.9327921164171088 59 219 46 128
3681 4.6901556798768702 -0.11568481730846032 -0.20754842567275006 70 65 98 0.46563608013931723 46 709 60 1202 52 808 38 270
3474 3.9164261693815514 1.7545262575831646 -0.73411851580297194 85 82 67 0.15037445051328718 51 364 37 164
3475 4.4936562675034866 1.7284704603563681 -0.95571800531343909 153 151 138 0.28850820066444266 51 214 46 164
3685 4.6186557075591308 0.93235852718660928 -0.53353210340321833 89 77 140 1.3158183530478156 49 1217 60 1798 43 929 46 1634 59 2609 51 2238
3476 4.6187814794069766 -1.8772305859040703 0.5092871696776593 192 194 181 0.97335614419142791 49 318 46 170 33 157
4122 3.4840699484845485 -1.352732675029116 -0.45097865672536053 120 114 88 0.38735771471656189 46 171 35 218
3477 4.0513214499126944 -1.2365831189601222 -0.66370830223964272 210 205 212 1.4486989637021537 89 175 46 174 42 154
3689 3.4462302611813906 -1.1934300953507955 0.02947166062541821 137 126 96 0.56971067426367994 59 832 46 176
3480 4.2146956719908157 -2.7659800868214872 0.33893299985788772 222 226 211 0.11940439352844728 51 106 46 185
3481 5.7021768986974752 -2.0353574308187294 -0.34277601048395673 204 198 198 0.86246532749149574 51 58 46 191
3693 3.8140811745364656 -2.202254822808507 0.082220097314057564 162 160 139 0.40711501667316619 51 200 46 326
3484 3.8885533797666612 -0.39505801245647437 -1.000918104885397 139 131 185 2.4446180810503209 51 222 46 215 35 179
3504 3.4012626388336074 0.39223697541727182 3.0623865926118805 144 130 103 0.19070872940834305 89 126 46 378
12288 0.86287996095282582 1.2726552055175393 4.594814512364831 176 178 177 0.41363425340491677 86 748 83 569
3507 4.124295472096672 0.53356714757925439 -0.96031874497609349 0 0 0 0.89871484877837404 49 364 89 431
4154 3.8959721568634373 -0.98001694153818064 -0.87634089578623542 0 0 0 0.40502754816537878 46 569 59 733
3509 4.0818916861027956 0.92839622756393292 -1.0798074116421676 47 34 43 2.3036673560819536 51 258 46 407
3593 4.0861923801214886 0.17372135102635736 -0.90096919370319228 0 0 0 0.31271392178051061 51 856 52 987
3512 7.6808802178299223 -2.5704861238701775 1.8184509384023502 233 222 226 1.3047903377260428 51 512 46 453 34 378 31 691
3597 3.4737488392093181 0.90297141186563723 -0.46977010336638508 102 106 81 1.7892627908205891 46 1101 34 599
3516 3.9195439338528599 -0.49230327303122473 -0.96350771862841478 134 126 178 0.14428343940766519 59 402 46 486
12815 0.47018531844984623 -0.13972162897640053 4.8005076834300446 172 171 166 1.483278825575262 71 50 76 72 73 48
3518 3.5327714824759116 0.38859477796679998 4.2653937375696556 140 132 95 0.021128085125390043 89 282 46 496
4176 4.6324085435232591 0.60793503952452677 -0.49004853675861187 64 60 93 0.96730941952772831 49 971 35 562
3523 4.3921477830267293 0.46190143337497963 -0.62627887545060568 74 65 110 2.4804696492274241 43 304 45 320 35 220 38 404
3669 6.4567779890821262 0.11384248463981521 3.1774040231631333 193 182 155 0.94281518261118524 58 2015 46 1771
3524 3.580760007664729 -2.675693201176391 0.65622227541228806 204 205 187 2.3140534583809846 58 514 46 535
12362 0.83165974600796089 0.50442966051104321 4.7474779845864337 159 161 156 0.9073119788740196 83 622 77 503
3525 3.7681658655278385 -2.3181263212867078 0.11543089103156637 199 202 181 1.6359460817288214 51 489 46 537 37 270
3673 4.6073579690749815 0.94494043508239212 -0.5217370622880928 176 167 213 1.6469206196158006 60 2312 46 1806
4703 2.5305835617909631 0.86732786211531043 1.3277189685913089 177 170 141 1.3846634687299619 37 720 42 627 34 327
3534 4.4260552155517505 1.4083860313955063 -0.84752806596912933 192 184 221 0.66210391707088778 43 566 51 469 46 589
3749 5.7032731869302182 -3.8712170748142145 1.070198372815601 0 0 0 1.4738671570940127 52 162 60 145
3540 4.0583477397516639 0.47537959306429778 -1.0268228725170401 53 56 86 0.62134694632253396 40 424 46 624 37 701
4186 4.2983275389299243 1.3086247015434422 -0.94247180459496249 90 77 144 0.27264427773389555 47 938 35 609
5931 3.1446465708855493 0.76901827075799833 -0.23033144956153351 197 183 152 0.07560195973530931 31 1627 26 973
3550 4.3486156927644917 1.4071472177658617 -0.9051570532588894 100 87 156 1.0488947192979243 51 769 46 718 42 1101
4208 4.0735950432194539 0.098029212810760741 -0.96840050250309417 153 161 200 1.6974543551056844 47 993 35 793
3555 3.550732159882187 0.95666874784245759 -0.42516035014634901 124 115 82 1.6023427216136195 59 1607 46 746 62 750
3701 5.8284084550143591 -0.41096279383244533 1.1156779834749515 82 90 76 2.1060276941900904 58 1424 46 845
3556 4.2371803921407505 0.59805503985837127 -0.83740415955905667 58 50 86 2.5399900130261619 60 670 46 757
3557 6.0464958336639087 1.3998083892848503 0.79953744521109882 111 127 106 0.77124967940820222 51 814 46 761 37 918
3705 4.5133450959720403 -1.7886372607516752 0.33089429472103804 172 165 147 0.71935761120173947 51 1062 46 943
3560 6.8121623046114541 0.91743323007496236 1.2453583516056446 122 143 134 2.1096740662042275 58 921 46 791 35 475 37 721
3562 6.5903959556361844 1.1262107531358005 2.9458806661106647 41 38 29 1.8319411372889789 59 925 46 804 35 472
3563 4.5656556745571706 0.19425991614958052 -0.42184209898180952 167 131 183 1.294760912196558 51 715 46 805
3709 5.7935810193210244 -1.6136348221857257 1.1132444720101091 141 152 148 2.0797908610673144 59 1400 46 990 33 539
3564 6.5742697954363205 1.0457837639505327 2.7945212860278508 93 88 69 0.80803072562100853 58 969 46 806 35 580
4735 2.4826653251881816 0.32675360820511912 1.2277559413632215 125 120 88 0.85481610082104442 37 892 42 864
3566 4.1197661391933904 -0.006057326007100617 -0.87427619653269939 189 203 242 0.77595972754034725 51 720 60 1237 46 813
3567 3.4631371930339356 0.21620390348144414 1.5077257382016247 163 152 124 1.114768291284213 89 889 46 829
3571 6.8168965639913974 1.2005696185047583 1.0338157647514143 102 113 105 1.7367321618668248 51 695 46 855
3653 4.6890758134507537 0.87536144794204374 -0.45853956654238975 98 83 164 3.4315281060948561 43 922 51 2231 35 834
3572 6.4704043291265476 -0.69064617610575785 3.751833337243597 76 67 60 1.2318610022390553 58 1220 46 861 53 753
4218 4.4296893821159236 1.205022432413982 -0.82957921388126632 113 102 160 0.68934808694161853 51 1339 52 1626 35 886
3573 5.7109426599917574 -0.75306827733698722 0.97802071993504092 94 97 90 2.2152473612355417 58 1026 46 866 89 945 62 702
3657 4.9401023118552061 1.6375322649781852 -0.38567478208843398 183 174 165 2.1246929760991633 52 1198 46 1692
3576 4.7934754218937243 -1.6992698934051453 0.22874253967069563 142 150 135 1.5301254673464735 51 413 46 878 53 193
3577 3.5539695833582527 -0.69260331503395445 -0.45352620063694782 140 121 81 1.0243763737923777 49 230 46 880
3661 6.5365477147971998 1.2628671430658978 1.0408552720236679 125 141 130 1.8026377736222847 58 1817 59 1128 60 2293 46 1720 35 866
3584 4.3963117044143347 -1.2748167399051944 -0.26294979863160811 174 167 181 1.0608007630404028 89 1106 46 976 53 1442
3594 4.2726492301154186 0.2653465724554222 -0.75183038908619859 187 185 225 2.5697458553120032 89 1011 46 1086 53 878
3600 4.3786573546813452 1.1013997473752473 -0.81652086745402341 217 212 234 0.5862514676341094 43 594 51 786 46 1123
5013 2.6661249538225604 1.8942315929388698 0.11908460075801679 159 146 137 1.7141061916001243 42 304 34 478 32 305 31 216
3610 4.3462470640763433 1.3677251188729331 -0.8852273675310024 91 80 138 0.28154611016074738 47 1060 46 1200
4494 6.2467347393240722 0.22071996224626819 -0.32585270593490001 0 0 0 2.2221149129172875 43 279 51 1705
3615 5.310145885436178 1.1299055547584673 0.9614689441833475 128 123 132 0.66409097587585919 51 2221 46 1272 40 1296
3616 7.218477115322357 1.331007344695246 1.574277884582223 122 140 127 0.29038705586783314 51 1277 46 1273
3631 4.1155208040933182 0.027103904465156703 -0.88439084493811959 151 160 212 0.38422573134493487 59 1971 46 1418
5027 3.3370981476266985 0.015894366046370359 -0.38151485674046531 131 112 69 0.63913660847558429 42 319 34 542 32 509 31 557
3632 4.7662403860259692 1.0391557278097097 -0.40878725367266283 234 228 255 0.92313075727214988 51 1445 46 1426
5045 3.666773571879018 1.6044420544759839 -0.46558923085252096 65 58 36 1.6730511202475971 42 747 34 667 32 558 31 937
3642 3.9894066126003427 0.36621343878994361 -1.0205409624744162 36 31 53 1.2619870677475857 59 2200 46 1519
4526 4.1762855119087074 1.7518238879368617 -0.69175038656624233 73 72 52 2.4561663542648233 46 792 37 857 42 1124 32 843
3647 4.2273349490786005 -0.28316122024157903 -0.6830756499128342 130 131 179 0.4792348700264249 47 673 60 1737 46 1567
3648 6.0438349514349969 1.0253712465879259 2.8767728674717961 34 28 30 1.4556766230630453 51 1507 46 1588
3658 6.431804323488624 0.094345507127229736 3.1003207988456754 90 79 59 0.63720345868503692 59 1790 46 1695
3659 4.7619588353448803 0.18152959863316193 -0.20823098109385965 91 77 92 0.75368457228531427 43 721 46 1705
12798 0.61149923975016474 0.84549360841004229 4.7286065564975761 107 112 115 1.2060983554198068 6 153 85 121
3663 4.0941768232186906 0.44535499029400671 -0.99744639282945058 117 110 164 1.1294382245459218 49 1395 46 1725 37 1198
4558 5.7644900335456954 0.034060747260044794 0.76974645919231088 110 122 110 1.97907467984265 46 1863 37 1137
3679 4.4001244246861617 1.0564445151658737 -0.79516740786640283 165 158 171 1.7920808861185249 43 167 46 241 49 173 58 248 60 253 59 230 52 270 45 179 51 186
3680 4.1641141099423651 0.27252838885704317 -0.89054711700208355 63 54 89 1.088541869982709 89 1013 58 1353 60 836 46 1089 43 820 51 840
3690 3.3461561585605155 1.6598417252349797 -0.035309344165826193 97 87 67 1.6110293472842028 46 230 53 215 33 207
3695 4.3153129736367779 0.47792060568498856 -1.164430310517758 100 91 157 1.3386436853142882 89 1643 46 395
5109 3.1871559295490997 -1.2368565823960398 -0.33900462728817599 136 128 95 0.16693131546899537 42 493 34 501
3706 6.1146705249974325 -2.0305378390033124 1.3582996719551397 159 163 156 0.46398921371519652 52 1160 46 965
3707 5.1721806545775255 -1.7321833871649159 0.80370267368862192 160 146 118 1.8269642244223983 49 1247 46 967
4590 3.0382346844749923 1.6838881694217509 -0.29096067843200812 220 216 215 1.4870849742806864 37 6 42 4 32 7 31 8 36 3
3711 4.271832406665534 0.5479664594924637 -0.8220369320986346 82 67 125 0.062534499135499549 51 687 46 1160
3712 5.1878303087659337 -1.816759548104609 0.62312268592903497 146 150 135 0.67666133569200881 51 1056 46 1227
4880 3.8013583471320986 -1.2239808220048913 -0.99083985613009595 154 147 147 2.4450431139983801 37 1060 46 1403 33 415
3715 4.6463041256489399 1.5052010267251954 -0.67799812041755625 58 51 93 1.8027468719496325 51 1834 46 1646
3718 5.9846135827330347 0.95116522924561087 2.5841868972886433 72 61 43 0.23670459637326829 40 5 38 3
3721 5.2510355863635469 -2.1942070751753935 1.5975078361290824 189 187 174 3.3532035627578471 45 12 38 15
3735 4.0609973038659719 -2.6760772599028666 -0.44016042328318528 158 161 140 0.82316895188251848 49 63 38 74
3737 3.6980300618709374 -1.4600985119900325 -0.63351832491231141 136 109 80 0.42044778592132398 45 99 38 87
3738 4.1310027465225199 -1.5117518840811417 -1.4066117348104947 213 210 205 2.2481477627084541 60 56 38 115
3742 4.8352159173114604 0.64072866491188429 -0.25044242300250102 87 90 139 1.0188411464246929 40 105 38 144
4922 4.2142537535136801 1.6643252577829926 -1.0379538717120529 162 155 145 2.1925390184472264 33 498 34 638 32 540
3765 7.420473612993649 -0.77755944220070883 2.867181488578729 111 127 114 0.53990620257382149 52 898 38 235
12559 1.0213510946661757 2.4211392465892598 4.4030084732084198 176 173 158 0.8117597979503246 44 376 55 254
3774 5.1724127552172749 -3.24584668381328 0.88978373678424094 136 133 114 0.67812225217419775 40 205 38 305
3781 4.0714486229575568 -1.0409316423195971 -0.89785080250764981 71 66 73 2.4416753115955032 58 1029 38 347
5163 4.6194927924713651 1.5897549293532209 -0.50129709868960037 117 104 70 1.5423269943010245 34 298 32 324 31 235
4954 3.0776180984771897 1.2969287731548012 -0.39826200533616896 222 215 207 1.6694283234527485 37 203 32 132
3797 5.9580988631907497 1.1526699690997033 3.7213742975328898 0 0 0 0.94500762015930773 45 691 47 526
3799 4.3316952949367469 -0.72844775486076441 -0.49642655040018824 135 101 171 1.9034365646637974 45 784 51 989 38 551
3804 4.1455998396744871 -1.2196442240600647 -0.63890046590185545 186 180 184 1.6164356028854274 49 623 38 576
3806 4.1339504291978511 -0.99728903184049467 -0.85521362788859445 77 72 78 0.29442858969298191 45 771 38 597
3809 6.053330089395291 0.10342736497371641 2.5561862240259758 0 0 0 0.062857809500845269 43 890 45 793
4976 2.9417728952882842 -0.37277570419754669 -2.268239852147246 77 65 65 0.91851110820560811 42 942 34 280
3811 5.0373175086189423 0.52533361158877911 0.51977174672519544 191 162 166 2.14085883524249 43 683 38 618
3813 4.2333312294252883 0.15260168690202774 -0.82800491282421185 75 69 131 1.1567803972026858 40 665 45 839 52 615 38 632
3815 4.1450072079222977 0.3469142451425537 -0.91108856218637158 63 53 109 1.741557370333215 45 747 89 1203 38 639
4479 3.9554861912048649 -1.1689940678648014 -0.23099034119718731 111 93 71 1.1322595747240392 62 566 37 435 42 440
3822 4.4280162813276016 -0.23538758207323948 -0.28695314168464181 164 142 189 0.45745775885938927 45 1074 38 785
3823 4.4896568863570572 -0.24117505248467197 -0.53918963821380661 142 134 185 0.36287365735705673 45 1219 38 794
4986 2.6462623912584036 0.07540893875673442 -1.374845549018858 77 71 45 0.71667419215219752 42 1079 34 351
3829 4.5550692543245592 1.0108494266282058 -0.60047196181522933 164 150 201 2.575199340656074 45 1017 89 1508 38 848
3831 4.76795901046916 0.85025521852587294 -0.65927435994104566 152 139 192 2.1248293707488894 45 1424 38 934
3840 4.2771932180203489 0.044919347551182674 -0.72079892235270948 115 73 134 1.7548208167682955 49 263 89 374 58 229 60 235 59 363 45 273 38 282 43 213 52 226
3842 4.0572432502270495 -0.70126253153286655 -0.79862458124781732 89 74 106 2.5591579162273383 45 1206 59 1779 89 1152 58 2028 60 1683 38 838
3846 3.8504852401085983 -0.59214607666539065 -0.98342055707710652 66 67 108 2.1043829828506886 49 756 59 1294 60 1458 58 765 53 1235 62 661
3850 5.4816206246990378 0.2809458337372252 2.1200625455861877 49 21 10 3.0467384731531855 51 40 38 21
12478 0.96843437084260109 2.5456612753220664 4.6669583754598669 81 81 69 0.67796456265505323 87 189 39 561
3855 4.8149630263073142 0.27946593530377001 -0.015975466769405328 89 55 66 0.11941491418507219 60 276 38 135
3856 4.0044433784008096 -2.6770668668614852 -0.085372146600292909 0 0 0 2.0572547945239075 43 177 45 359 52 278
3860 4.7414990477241608 -0.31669212893699356 0.039196854026814804 91 72 56 1.4579787202940251 58 417 38 481
4757 3.5427178500500163 1.712853999723251 -0.36717041932766292 88 85 68 1.2574855250403616 37 1080 42 1111 32 547 31 402 29 602
3866 4.3628267491250989 -0.3722922780488887 -0.49620230569756452 98 92 131 2.3314985994439765 89 1626 52 1776 43 1380 46 1333 51 1562
3868 3.7770554416447086 -0.25675158125269337 -0.79402275709365089 56 38 16 0.84656642926492442 89 5 53 3
3872 2.7980618105674275 0.61628216612688447 0.57905520109331932 195 182 137 1.7031466895542573 59 60 53 25 62 29
3882 3.4889431529367854 0.15901250185780896 -0.39130290412874336 144 137 109 1.1191164095403416 53 82 62 112 41 57
3888 3.4797714282706096 -1.7240748786914553 -0.57244205618762412 197 192 188 1.7305265674357939 59 150 53 110
5586 3.6181405527340917 1.5452785009163763 -0.47810184833690933 0 0 0 2.5782202155173621 34 470 42 381
4789 3.9818007659426375 0.24598772379349979 -1.0098807523983833 118 123 183 2.0947526375233214 58 863 60 830 51 837 46 779 53 891 59 2191 42 1379 58 1512 35 785
3898 3.4277277729268669 -1.9718080709263794 -0.32416511040380974 186 180 166 1.6395175853479222 89 167 53 189
3900 5.4604376320056369 -2.1154130896832823 0.84369647327225916 224 220 209 1.3054227327740775 59 313 53 191
3903 3.5123469081615495 -0.77204732416301747 0.48710835051321472 146 131 90 2.2576711788576516 89 178 53 205
5593 3.2075457454110663 1.2552960510379483 -0.38163560235333183 134 129 107 1.4715951718516114 32 583 36 697
3904 7.0237252210914249 -0.025714454577245145 4.3717024303782814 56 46 36 0.15911047176745785 89 214 53 207
3907 5.939354940407549 0.86925797712137598 0.86926437611481622 76 77 63 1.1171200439310947 40 674 89 377 53 236
3914 4.72185744671427 -1.7891605918374807 0.79571036067857581 132 141 125 2.1118671784842631 59 469 53 304
3933 13.385535615391518 -4.4020998817213641 15.870696944865671 215 211 202 2.1591324693893466 58 570 53 461
3936 2.3086674626650288 -1.5015325239622088 0.21994731635034306 123 109 62 1.2618278139176573 89 615 53 467 62 383
3943 3.909839107428605 -1.8976877006699728 0.051912937984269797 208 208 196 1.8802537231835188 89 566 53 550 62 296
3946 4.4252473171487798 -1.5964162321325901 -0.18666927891086152 89 75 64 1.5666521464794017 51 1360 53 567 41 216
3948 4.272050716113287 -1.3160946027888791 -0.45397768133904376 109 97 99 1.5898047418810111 38 496 53 578
4835 7.319043916332431 1.0914879177659182 1.4903274851561259 173 172 167 1.539839979269088 37 85 46 133 47 89 34 209 32 217
3952 4.5095341704979583 0.8235279953965422 -0.63375746403541255 92 78 135 1.2726224169260696 89 429 53 602 62 1156
3962 6.6517965551436307 -0.42196070288668847 2.9212941240870141 108 96 82 0.31921571021246919 89 724 53 683
3968 5.7401851393019943 -0.20515365276860204 1.0661641727994551 97 85 59 1.0197162768949188 59 895 53 715 62 968
3970 6.5370748543998607 0.1511251138758255 2.9778833072064548 85 74 44 0.46841309682134358 89 872 53 725
3971 3.3667751653709184 -0.84593833299235233 -0.35043084972706567 131 118 86 0.67847140257211502 59 1254 53 735
3973 3.8714775135634096 -1.2602211401087122 -0.90511187352011513 95 89 93 1.3878550383391222 59 838 62 879
3976 6.5603861409561697 -1.2284976240320549 3.9672184027814228 91 78 62 2.4212657264070123 46 1355 59 829 53 770
4127 7.8364854566777113 1.0965440955912054 1.6380619153544096 0 0 0 2.9780836013285263 43 357 45 274
3982 2.0591969912060319 -2.2737415897278175 3.0538467472756756 136 128 91 0.79040558345787559 49 592 53 815
3983 1.1537550372925542 -3.1580211868801662 3.3818872670452667 125 114 87 1.49588592686505 59 675 53 827 62 280
3985 3.9222466138972454 -0.34887673596888719 -1.0427984874745702 85 89 163 2.5019775102234276 59 1090 53 858
3987 4.144497012308145 0.087446488916154183 -0.86796961658458016 136 131 189 0.36265409325577186 49 712 89 949 53 873
4634 3.6175065177180126 1.70643967110589 -0.21466180480059946 137 132 113 0.70975723010949343 46 316 42 203
3998 3.1427021456196234 -2.0670777744973066 -0.69599594062709891 92 77 48 2.0791958675982141 89 1374 53 1026
4005 4.3080272140582547 -1.1231900984179279 -0.41255617692210661 106 101 102 0.26220871352538733 59 1435 53 1124
4019 4.0792504087028494 -0.53643423166381865 -0.78824546563009346 95 97 135 1.447492246660353 59 1753 89 1223 53 1318
4666 4.933741468820334 1.3644647865960353 -0.27956821359318151 132 122 156 1.4989397822813111 37 190 42 362
4021 4.570552016861102 0.22014989422206768 -0.39772593061030198 133 106 147 1.0037034531491125 59 1116 89 1254 53 1336
4027 3.9782738396455288 -2.7515430099349372 0.18130442551119089 192 195 174 1.2667652159310376 49 283 53 1383 38 306
12303 0.78403445463661914 -0.75559110265280705 5.9841150915416117 165 156 139 3.3527741135970777 86 43 77 27
4030 3.7609190878240439 -1.8086498229096519 -0.0023050697289440474 160 156 147 0.53423497748582616 89 1356 53 1429
4688 5.7073413258394634 0.0088361661612917936 0.85323557882845347 170 162 143 2.1719247998352449 37 366 42 542
4385 2.3689840925417465 1.3990150248074538 2.6014507664466149 167 154 112 1.087428267325828 58 1785 62 1244
4035 3.8397185693686064 -1.0181752502973347 -0.8826052921018126 70 61 69 0.90280354889672076 59 2485 53 1505
4039 4.09284982844843 0.32940606583414073 -0.97109829782206969 107 100 151 0.036777370207462648 60 2304 53 1618
4191 4.1359042495563934 -0.3633109641300723 -0.78877450532788695 0 0 0 0.7632713919114622 47 544 60 1440
4046 3.1730728246694682 0.81868173446719528 -0.091650681272603493 87 78 53 1.6103418817833977 59 971 58 715 49 963
5420 2.8909023445038873 1.8306495237983129 -0.28058951623717876 170 160 161 1.5901423203194556 32 851 31 969 26 245 25 438 19 467 17 282 27 286 18 416 14 244
4051 4.3415769599645424 -1.2930066155342796 -0.33017872911395968 42 37 43 1.9249642159803297 58 1706 53 1440 53 1486 43 1109 49 1249 89 1423
4062 5.484378666060417 -1.8878635330515854 1.1181075663466487 135 142 126 0.29570577195466397 40 624 53 470
4720 3.4582998196124284 1.9132300918537553 0.0035201408022145502 83 82 67 2.1513940625017725 37 853 42 750 32 1508
4067 5.1811628721366958 -3.0080358992061353 0.8070117221091333 153 146 136 2.9737937136583246 59 671 53 830
4068 4.0410647204423524 0.14610953257008757 -0.97080696351924789 135 142 194 2.7864819652272113 51 760 53 884
4069 3.1311751797728964 -1.8497566563689585 -1.0381862858585993 161 156 124 0.13948146599760219 89 1064 53 1030
4223 4.819743616835793 1.4773080029758161 -0.26291301269467426 0 0 0 1.9599590030891076 43 1324 51 1853
4084 6.6471890420416671 -0.77850634106740557 1.4592128751794666 118 135 127 1.2174394961101023 60 36 35 25
4730 2.684967737371271 -1.3236736023867521 0.40657883102161124 155 150 121 0.7187928432370122 58 1959 42 810
4085 8.6837653705582909 0.60868331539246978 2.3583690658168703 186 147 132 1.4373116462705573 46 87 35 35 42 194 34 316 32 523
4086 4.8994463487750375 1.6653593043547696 -0.36815300129591821 215 210 208 1.9778802652697909 47 34 35 36 33 109
12367 0.63601603020674047 0.77515616060567838 6.0616080334604447 187 168 128 1.7690707133688544 86 708 77 612
4094 6.2290367722964817 0.089768645909788752 2.8613646702326587 204 188 151 2.1871577284607544 40 243 46 76 35 72 49 174 33 134
4098 4.2232444350348066 -1.0976936965243711 -0.3594048695939131 138 132 134 1.1802253606326012 51 61 35 96 40 128
7613 2.7981191569508876 1.5921293293960408 0.65663953821093979 161 154 125 0.8331101675233471 30 289 20 417 23 620
4101 6.1388444273042611 1.2722327641516209 1.7787184212409839 0 0 0 1.9331060431822589 46 131 49 161 60 85
4102 4.4760627839993026 0.92575265186301969 -0.89243095748700896 0 0 0 2.2555583053579644 40 99 43 112
5553 3.1223425902946556 0.023399737943021713 0.12875850052416182 166 161 132 0.45301419399707749 31 555 25 404
4104 4.6229472676874375 -2.2687592360987847 0.72465316859346307 0 0 0 3.5005387499744725 38 214 49 331
7611 3.2217153522869233 1.7849033828458711 0.3451615438775002 57 45 29 0.52421756796303121 27 474 20 414
5048 6.8568848549453278 0.7288265283462001 1.2341397469611968 132 143 137 0.010658473842898098 46 798 31 1042
4105 6.1896636127627378 1.2839282882849234 0.66884271117960636 113 117 100 1.6179341864996524 47 260 35 137
11653 2.4908691956618911 -3.3940476751035953 4.1574100239995504 111 97 63 1.1809620411192758 21 424 11 1352 16 498
4106 4.839260928765694 1.0481644314594012 -0.29202158834738989 192 190 204 1.7490970028554851 46 150 89 151 35 138 33 183 37 231
4107 4.154109780441078 1.115785223798887 -1.0704824079064963 96 81 166 2.4011983416635188 40 96 35 143
4108 4.0275678043869583 1.5014681375106576 -0.60029910729767777 69 53 40 1.8057330882473472 46 157 35 145 37 113 42 120 34 118 31 181
5567 2.2943303190837665 1.7716285050190466 -0.15447221254804622 61 48 39 2.1500498889748516 31 211 36 484 29 361
4110 4.3159657829887967 -0.17248286459116413 -0.61969467012031276 175 146 202 2.476130985666841 46 254 47 155 35 151 37 295 42 316 33 230
4115 4.3767040365719501 -0.97629358617841799 -0.34152927106398406 123 113 121 1.0434537692992678 46 209 33 275
6018 4.4042673630325648 1.6526060448885338 -0.68199653501757052 66 63 51 0.027623740428700812 26 89 25 98
4116 3.4811524054136491 0.16747153401494394 -0.35472490546269336 160 157 142 1.4480389867650574 49 784 35 184
4996 4.1088221904812263 -1.4556323038631411 2.6424219674824627 126 109 65 1.2343667963450795 37 797 34 393
4117 4.2658950205815094 -1.5377336302031788 -0.24711568333582595 127 133 119 0.98771939975049838 46 294 35 198
4118 3.8572782992174641 -1.2703045326462656 -0.82666888185487841 0 0 0 0.047422863880673335 45 392 46 292
5505 2.3462773019207379 -1.7057388942490062 0.055874926285051522 120 109 79 1.1601637708393535 32 54 36 66
4120 3.9610347297834703 1.6216017405930194 -0.54361669947461677 19 14 11 1.1295949215201853 46 223 35 211
7563 2.260888233216614 -1.412664677622848 0.25468926964158556 162 154 117 1.0444289783906955 27 164 20 228 23 209 18 303 14 219
4123 3.6542563284204683 0.52807630591175581 -0.15311475434431873 116 110 78 2.4428076508237591 46 147 35 227 33 124
6026 1.7712973194315453 2.2128498312706162 0.97006117700409578 59 49 37 2.2456477414473452 29 159 26 136 22 202 30 166 27 269
4125 6.1396810240836031 -0.33521620487760173 3.6412133742582928 0 0 0 2.1879996394099193 40 234 47 237 51 220
4126 4.367117493470146 -0.7151176100953337 -0.44739844164349751 0 0 0 2.9345408589780586 40 149 46 269
5513 4.1431860840711678 1.7887828571663509 -1.0814975055494627 161 154 136 1.6132344195571491 29 209 22 267 26 188 19 211 17 321 23 621 30 420
4128 6.42483812139288 -2.871595437607962 1.0836969631151163 0 0 0 0.75034187778051753 51 155 46 216
4944 3.6772357088801999 -0.028689783542475075 -0.39855437024559853 40 39 21 1.4449339361670854 37 59 42 59 34 79 46 51 32 68
4129 6.7340244500013267 -3.0238542879500052 1.5046587608131003 163 154 152 0.37642458815379509 40 334 35 263
4130 5.3620786952634152 1.0799973687349087 1.4553896393018124 60 48 122 1.6385101856021684 47 509 35 278 40 672
7517 10.684932174266047 7.7866461276459331 -0.70639381001201496 115 108 92 2.3533130683274868 30 16 20 20
4132 4.4538512854695762 -1.1310950253597758 -0.24599196108202362 144 138 140 0.16977234466477809 46 469 35 285
5463 2.2778558442305696 1.7539611921812346 0.36211787700244902 104 80 70 1.228045706609501 34 1149 31 1482 36 1689 29 1752 26 1161 25 1321 22 1160 19 1285 18 1063 23 946
4134 6.3384502419160365 -0.48676841536122145 4.0285895023076295 101 71 49 1.4613248478355854 46 264 35 301
5457 2.2813305728291082 1.9107142927627387 0.40261806869337324 134 111 100 1.4219986763609922 32 841 31 1411 36 1114 29 1111 26 728 25 480 22 684 19 543 17 473 30 450 27 488 20 510 18 567 14 439 9 509 7 281 24 458 106 655 102 859 92 341 90 351 81 253 99 393
5824 2.1208473250836648 1.8801593204089777 1.0657288323601268 160 143 135 2.3877981616789103 31 231 29 537 19 924
4136 6.8097483697731382 -0.53104602588180649 1.4390932324746204 130 148 136 1.0196209605388025 35 303 42 307 34 1017 32 636 31 816
6858 2.1661700272346227 1.976888122756832 0.69258610311802316 88 70 66 0.94522116310722293 25 1137 19 895 30 925
4138 4.8681900976448418 -0.03232179927806262 0.64463237597039835 156 146 198 0.17534480955007514 47 97 35 312
4140 4.1840086538180801 1.5007740106169738 -0.93328104801059208 106 96 159 0.43780692798575405 35 321 42 112
5471 2.6417671233970728 0.80286283350906729 -0.58030184146929054 156 126 93 2.0981356382494569 42 1050 31 1742
4956 4.3561394527470227 1.7386336202415373 -0.63577791081070356 58 56 41 1.8399837049392058 37 102 34 138 32 311
4141 5.0334056475544182 1.645253062344572 -0.37959467624644072 172 164 145 2.064704119510266 40 259 46 319 47 248 35 323 37 240
5839 3.4439752172260953 1.7768258257849174 -0.27650687808805724 89 87 67 1.4177617609474586 32 906 29 653
4142 3.594747747840465 1.361395247414658 -0.45174867540203345 131 112 80 1.2869018970514596 46 597 35 325 37 597 42 593 31 918
5465 2.3217443153063138 1.8914546698576948 0.35380591104420178 143 124 114 0.59355108872107509 31 1502 36 1721 32 1537 29 1788 25 1244 19 1390 30 1194 20 1289
5832 5.1847765287248793 0.42100919973854295 0.36872353144072567 64 69 61 1.4780513183202753 36 563 29 595
4145 8.39066942971019 0.58358106740464566 1.9192052256937213 159 152 141 1.0488865143884494 52 520 35 373
4146 6.9729975149035548 0.58488144053112678 1.2724752079757775 0 0 0 0.2398685671665815 47 292 43 306
7597 2.7380618722573371 1.6089207304537068 1.1176493722219554 92 76 51 1.7185244140043221 27 584 23 529 18 601
7900 6.5336673286301998 1.4469067212262932 2.670522804013324 71 60 31 2.5001008037084578 19 1055 23 1070
4148 4.9357102742328731 1.6257789520804691 -0.3452217718207457 144 136 129 0.3818737451002816 40 260 47 391 35 396
5543 2.6555754718763378 1.4023014991599534 -0.046959307384130122 122 102 77 0.94389229340187786 31 185 36 329
6870 2.0407534163561687 0.2773492075586404 2.0211241072020347 204 191 147 0.96761018187899628 26 1133 19 998 17 804 27 533 23 814 14 783
5028 2.9244648830517308 0.11337949681219006 0.36519890516967496 164 155 122 0.94343647009511444 42 862 34 544 32 703 31 788 36 1001 29 1006
4149 4.3594083698900539 1.4909080112725219 -0.8919627026456588 97 83 158 1.2274293288452756 47 482 35 399
5847 3.1172023171494891 1.3745031020597362 -0.1698146300755182 126 120 94 0.77337094385227134 36 1265 29 693
4150 4.8344644766334461 0.72686066755600787 -0.10890168518077094 0 0 0 0.38877507960551116 46 532 47 88
5537 2.6883494329973137 -0.7765115879265867 0.30269163251175224 120 99 60 1.5431385114659437 42 140 36 296
5840 1.7861085235095173 1.8802610570761995 1.2465739025951073 145 132 116 1.6314724457174024 36 1089 29 658 26 711 25 866 22 944 19 820 17 576 30 607 27 486 20 613
4152 3.7636093156623343 -1.1422129471810545 -0.87007417743289472 0 0 0 0.70575064712010738 45 763 89 53
6874 2.1226278124358262 -1.3887726561082749 1.3812966520995922 168 165 122 0.58198603092789769 22 891 19 1015 17 756 30 741 20 665
7595 2.4795711680956045 1.3132648459196674 0.49768906894712095 150 143 112 0.74466380589629799 25 582 20 336
